-5.58551 2.54434 34.9499
-13.4002 22.0541 97.9297
20.5093 -19.2588 96.6951
11.3095 -14.8703 57.4682
18.5964 -16.5504 77.8419
10.567 -12.5252 36.2203
16.9969 -13.9514 53.9893
19.6659 -14.7078 63.8771
25.9769 -18.9572 115.765
12.2075 -13.9167 56.0453
15.584 -14.4769 62.9399
8.90941 -12.2474 36.351
13.5316 -14.3948 62.8708
9.98933 -12.167 35.9315
-27.667 -15.329 77.0413
15.0262 -13.5857 54.4148
-12.369 -12.8668 46.4764
-24.3946 -16.4644 96.5433
23.7021 -17.2652 113.945
11.86 -12.7616 55.1113
4.60648 -12.9663 65.6219
4.44664 -12.6616 64.3581
3.49215 -10.8676 36.6521
4.11504 -12.4669 89.8968
3.82026 -11.2484 59.6624
16.136 -11.9473 81.347
21.847 -12.8701 116.859
3.63572 -12.17 111.177
18.2511 -11.2748 93.5859
23.8533 -11.6353 120.19
27.0697 -11.7008 122.93
-5.98159 -10.2701 67.7579
53.8076 -15.9553 325.092
44.6765 -7.67864 306.321
23.9547 -7.25868 126.686
7.79225 -7.75144 35.3233
8.01777 -7.70584 35.2535
23.0215 -6.10284 127.995
25.2549 -6.07846 129.38
12.8469 -7.03249 68.8457
9.05096 -7.57166 34.9641
9.44982 -7.4815 34.8406
13.1962 -7.10645 38.034
18.4277 -5.95895 71.8047
14.4987 -6.36831 52.7789
22.7917 -3.52175 132.283
17.2481 -4.95079 91.9095
34.1881 -3.11901 139.31
6.67122 -6.81012 35.3827
10.4155 -6.40856 46.5802
22.7631 -3.04831 133.1
14.6789 -5.43214 69.0593
23.5864 -4.66395 82.4327
17.3023 1.30664 88.5282
9.53203 -3.49307 37.3888
-7.47595 4.54079 61.44
-22.4631 26.0812 175.82
-2.10937 7.44187 69.2042
-5.61701 19.4455 127.943
-6.03537 18.2361 119.672
-2.49678 9.15249 73.4029
-1.73218 20.0049 124.19
-29.2943 34.2386 177.06
-14.0253 38.6654 194.513
-24.4042 7.57325 59.2806
-5.52949 13.0326 82.6582
-35.4077 20.2046 112.707
-5.43967 13.6263 83.9548
-5.10191 24.8856 131.954
-4.17206 25.0221 132.531
-42.9826 26.0485 136.354
-42.2306 26.0519 136.366
-29.8829 36.8191 180.589
-55.3949 30.2743 152.476
-14.6018 2.02713 33.7979
-54.7724 30.592 153.098
-29.1358 12.1587 75.5585
-41.631 20.7988 110.994
-30.0306 27.5317 138.689
-7.69346 1.98522 33.0528
-50.7139 27.7933 138.56
-34.2063 16.598 92.581
-15.2741 16.3082 90.9215
-5.58827 2.5484 34.9664
-13.4041 22.0618 97.9569
20.7741 -19.4115 98.2177
11.2974 -14.8621 57.3807
18.4109 -16.4613 76.8625
10.5671 -12.5252 36.2207
16.966 -13.9403 53.8577
20.0435 -14.8389 65.452
27.8474 -19.7668 125.558
12.1982 -13.9119 55.9853
15.7928 -14.5675 64.0575
8.90955 -12.2475 36.3519
13.6799 -14.4695 63.8042
9.98943 -12.167 35.9321
-26.6391 -15.094 74.0191
15.0052 -13.5777 54.3117
-12.3058 -12.8478 46.227
-22.9664 -16.0358 90.7656
25.4446 -17.9626 123.876
11.8646 -12.7636 55.1414
4.60065 -12.9566 65.4559
4.48166 -12.7192 65.401
3.49254 -10.8682 36.6638
4.09371 -12.4284 88.9128
3.85591 -11.2996 60.99
16.0422 -11.9249 80.7424
23.7587 -13.2843 129.05
3.75675 -12.4291 119.872
26.1288 -11.9549 133.716
29.7593 -12.0372 137.165
-5.88625 -10.2495 66.8228
74.2225 -18.8673 457.016
61.3401 -7.33568 429.695
26.6208 -7.10121 143.25
7.81733 -7.74797 35.518
8.04468 -7.70205 35.4543
25.6504 -5.7965 145.214
28.2019 -5.76486 147.007
13.6973 -6.91341 75
9.08571 -7.56682 35.1842
9.48927 -7.47583 35.0765
13.5683 -7.05837 39.624
19.9886 -5.71271 79.5562
14.746 -6.32515 54.0162
25.5849 -2.84678 151.354
17.5452 -4.88074 93.8888
38.6553 -2.36531 160.002
6.71519 -6.79382 35.8055
10.4159 -6.40847 46.5826
25.587 -2.30074 152.518
14.5264 -5.46961 68.1116
25.7719 -4.27059 91.7715
19.3047 2.59322 101.382
10.5037 -2.84388 43.4647
-8.76103 6.32692 71.1849
-27.1354 32.711 211.39
-2.78945 10.1234 82.4828
-5.56447 19.2511 126.985
-7.08809 21.769 136.774
-3.22742 12.0634 87.1153
-2.26642 24.1506 143.671
-33.0269 39.3516 199.412
-17.081 47.699 233.639
-23.3793 6.94588 56.5852
-6.925 17.0617 99.9544
-36.7636 21.2486 117.162
-6.813 17.75 101.424
-6.27299 30.4406 155.537
-5.08851 30.0501 153.876
-48.93 30.6294 155.73
-48.1324 30.6754 155.922
-33.6897 42.246 203.385
-53.8865 29.2528 148.201
-15.5905 2.65955 36.416
-53.4116 29.6527 149.184
-30.1299 12.8212 78.2956
-42.0589 21.087 112.182
-34.9749 33.1117 161.682
-9.1968 3.62922 39.7695
-57.1453 32.2328 156.706
-38.434 19.5396 104.579
-18.1196 20.4166 107.6
-8.41523 6.71446 51.8428
-15.2804 25.804 111.154
20.9367 -19.5052 99.1526
11.143 -14.758 56.2674
17.548 -16.0471 72.308
10.5654 -12.5244 36.2114
16.7102 -13.8486 52.7698
21.0609 -15.192 69.6961
32.5181 -21.7881 150.01
12.0606 -13.84 55.0994
16.377 -14.8211 67.1838
8.90979 -12.2476 36.3535
14.087 -14.6747 66.3665
9.98915 -12.1669 35.9305
-23.9968 -14.49 66.2511
14.8033 -13.5001 53.3165
-12.006 -12.7576 45.0439
29.9305 -19.7581 149.441
11.8099 -12.7404 54.7815
4.51819 -12.8199 63.1086
4.58485 -12.8886 68.4739
3.50105 -10.8809 36.9214
3.94904 -12.1674 82.2393
3.99789 -11.5036 66.2771
15.3391 -11.757 76.2142
28.9011 -14.3986 161.842
4.07568 -13.1118 142.786
32.2559 -12.8156 170.141
36.9013 -12.9306 174.966
164.243 -31.7111 1038.74
165.402 -5.19935 1200.14
34.0215 -6.66411 189.227
8.40426 -7.66675 40.0733
8.68154 -7.61241 40.2061
33.0254 -4.93711 193.519
36.4228 -4.89009 196.182
16.2083 -6.56182 93.1734
9.94405 -7.44738 40.622
10.473 -7.33439 40.9611
17.0774 -6.60517 54.619
24.2284 -5.04392 100.61
15.6532 -6.16678 58.5566
33.574 -0.916216 205.902
17.4186 -4.9106 93.0449
50.8836 -0.30215 216.646
7.60553 -6.46397 44.3673
10.4141 -6.40892 46.5706
33.6936 -0.154693 208.262
13.9186 -5.61891 64.3357
31.2108 -3.29168 115.013
24.5041 5.934 134.757
15.4042 0.429546 74.1068
-11.8837 10.6671 94.8646
-43.2548 55.584 334.108
-4.41896 16.5483 114.299
-3.83942 12.8658 95.5265
-9.73839 30.6635 179.828
-4.96423 18.983 119.712
-3.69247 35.2167 195.67
-32.564 38.7175 196.64
-23.4096 66.4082 314.674
-19.9303 4.8345 47.5141
-10.3611 26.9825 142.542
-34.3719 19.4071 109.304
-10.2059 27.9378 144.584
-9.73477 46.8615 225.249
-7.52768 43.4323 210.687
-63.625 41.9479 203.605
-62.8531 42.2078 204.701
-31.7042 39.4155 191.495
-30.6707 13.531 82.4109
-18.6355 4.60717 44.4791
-30.3167 13.7118 82.765
-29.5214 12.4157 76.6203
-35.271 16.5143 93.3323
-48.9908 48.9294 226.862
-14.8883 9.85289 65.199
-71.2929 41.9986 196.624
-47.2195 25.6526 129.513
-25.0995 30.4945 148.513
-15.7369 17.504 95.5526
-19.214 33.6495 138.822
20.373 -19.1802 95.9112
10.5489 -14.3575 51.9834
15.5059 -15.0669 61.5295
10.4897 -12.4896 35.8052
15.6883 -13.4825 48.4223
21.8415 -15.4629 72.9526
34.9625 -22.846 162.807
11.4917 -13.5429 51.4354
16.8046 -15.0066 69.4718
8.87464 -12.229 36.1193
14.3587 -14.8116 68.0768
9.94152 -12.1455 35.6582
-20.6526 -13.7256 56.4195
13.9914 -13.188 49.3158
-11.2473 -12.5294 42.05
32.3423 -20.7234 163.186
11.4621 -12.5929 52.4959
4.33432 -12.515 57.8746
4.66423 -13.019 70.8378
3.58969 -11.0135 39.6029
3.69942 -11.7171 70.7242
4.1324 -11.697 71.2859
14.0233 -11.4427 67.7394
31.7993 -15.0266 180.323
4.24383 -13.4718 154.867
35.7294 -13.3035 190.79
40.9051 -13.4315 196.157
47.5007 -15.0557 284.336
92.9476 -6.68561 663.71
38.3794 -6.40673 216.301
10.53 -7.37304 56.5716
10.9337 -7.29588 57.0096
37.4229 -4.42467 222.322
41.3011 -4.371 225.362
17.8736 -6.32866 105.226
12.7548 -7.05673 58.4277
13.5341 -6.89479 59.2715
21.398 -6.04742 73.0812
26.8372 -4.63241 113.565
16.6867 -5.98641 63.7285
38.4615 0.264837 239.273
16.6004 -5.10355 87.5935
57.9266 0.886126 249.27
9.62222 -5.7173 63.7595
10.2618 -6.44762 45.5524
38.6773 1.16462 242.532
12.5114 -5.96465 55.5928
34.3471 -2.72719 128.415
27.4508 7.82733 153.673
18.7526 2.66608 95.0435
-13.6527 13.1258 108.279
-55.679 73.2135 428.694
-5.2992 20.019 131.485
-2.3633 7.40201 68.6083
-11.083 35.1761 201.671
-5.89141 22.677 137.113
-4.48711 41.3831 224.645
-20.7717 22.5642 126.026
-20.9581 59.1607 283.283
-12.2447 32.4209 165.888
-29.2088 15.4316 92.3407
-12.072 33.541 168.321
-11.9664 57.4473 270.19
-8.83909 50.6272 241.231
-70.2734 47.0687 225.265
-69.658 47.5388 227.25
-17.7717 19.5538 108.063
-22.8349 7.29308 55.5992
-28.1809 11.5222 72.9292
-27.1346 11.0332 70.7371
-57.295 58.3012 265.48
-18.681 14.0002 82.1448
-75.7762 45.0933 209.273
-50.8056 28.1478 139.691
-28.8399 35.8949 170.436
-19.3374 22.8099 117.047
-20.7907 36.7941 149.911
25.0184 -20.963 122.126
12.0643 -14.1972 66.5802
21.7302 -16.8317 94.4147
10.8763 -10.9674 39.8648
19.334 -13.1647 63.6979
21.6937 -13.8496 71.7922
26.2717 -18.0762 116.579
12.8827 -12.8597 62.944
16.1116 -13.2282 66.6796
8.83956 -10.6105 39.7398
13.3902 -12.9134 64.4148
10.1557 -10.5214 39.3875
-33.9389 -14.7579 87.0265
15.0977 -11.9656 55.6886
-13.5804 -10.4376 39.9919
-32.7324 -17.3856 121.899
19.26 -14.1111 89.5912
15.6923 -13.1022 82.2114
3.9058 -11.7892 73.5742
3.53844 -11.1391 67.9781
2.3219 -8.90774 39.1154
3.79659 -11.9653 110.027
2.46291 -9.01913 52.9941
18.8254 -11.1912 99.6822
21.2807 -11.4336 113.264
2.62615 -10.4495 102.345
24.0697 -11.1044 130.232
24.8489 -10.5674 125.629
28.2684 -10.7479 128.421
-8.60104 -8.68515 76.6105
55.3501 -17.1948 326.52
45.7612 -8.54793 305.941
24.9163 -5.92054 131.993
8.35576 -5.18493 44.752
9.69608 -5.0562 52.0473
21.5284 -4.84819 118.391
27.2746 -4.61278 140.299
11.9026 -4.94351 65.4592
11.6318 -4.82556 53.9915
9.42566 -4.89082 37.6467
19.4327 -4.03717 64.2559
19.6068 -3.66941 77.7674
14.7489 -3.91718 55.0074
21.2837 -2.36131 122.699
16.4559 -3.09087 88.2379
34.4757 -1.7871 138.704
5.55686 -4.24378 33.3174
9.52426 -3.94012 44.4007
23.2236 -1.54892 135.93
12.9166 -3.4555 60.7226
26.2133 -2.22374 92.6898
14.5356 2.2535 72.8764
8.93417 -0.52421 37.0192
-6.86501 4.03263 40.2741
-23.973 28.2493 179.104
-2.5691 5.99469 44.9998
-7.36093 24.4029 141.733
-6.83701 19.31 112.454
-2.54135 5.9692 41.7468
-2.55151 20.6542 115.36
-31.0469 36.8259 180.555
-15.0371 41.1932 198.826
-26.6072 10.2373 55.9675
-5.49892 11.287 60.425
-39.5369 24.1055 118.085
-3.99222 7.295 41.6362
-5.8446 25.7861 124.917
-4.98972 26.3399 127.401
-44.2448 27.6138 132.782
-41.9077 26.4365 127.483
-32.0861 39.9539 186.563
-55.5127 30.9368 145.901
-16.0443 4.45885 27.7809
-60.0757 34.6899 161.751
-24.1486 10.1344 52.5073
-47.8482 25.8084 120.608
-29.6433 27.4199 127.824
-10.2673 5.56718 31.9962
-59.4301 34.2208 156.16
-34.556 17.7927 84.8316
-14.1903 14.9012 71.8051
-6.8503 4.64431 27.5319
-12.5063 19.8078 77.8342
25.0192 -20.9635 122.13
12.0643 -14.1972 66.5802
21.7301 -16.8316 94.414
10.8763 -10.9674 39.8648
19.334 -13.1647 63.6978
21.6939 -13.8497 71.7931
26.2769 -18.0786 116.606
12.8827 -12.8597 62.944
16.1116 -13.2282 66.6799
8.83956 -10.6105 39.7398
13.3903 -12.9134 64.4151
10.1557 -10.5214 39.3875
-33.9375 -14.7575 87.0223
15.0977 -11.9656 55.6886
-13.5804 -10.4376 39.9919
-32.73 -17.3847 121.888
19.2656 -14.1135 89.6218
15.6923 -13.1022 82.2114
3.90581 -11.7892 73.5744
3.53845 -11.1391 67.9786
2.3219 -8.90774 39.1154
3.79661 -11.9654 110.027
2.46291 -9.01914 52.9942
18.8253 -11.1911 99.6815
21.2861 -11.4351 113.297
2.62665 -10.4505 102.368
24.069 -11.1043 130.228
24.8553 -10.5687 125.665
28.2756 -10.7492 128.458
-8.60103 -8.68515 76.6105
55.418 -17.2091 326.942
45.8142 -8.55145 306.315
24.9236 -5.92066 132.036
8.35576 -5.18493 44.752
9.69608 -5.0562 52.0473
21.5369 -4.84792 118.445
27.2823 -4.61253 140.343
11.9032 -4.94348 65.4632
11.6318 -4.82556 53.9915
9.42566 -4.89082 37.6467
19.4327 -4.03717 64.256
19.6079 -3.66931 77.7725
14.749 -3.91718 55.0075
21.2929 -2.35994 122.759
16.4562 -3.09082 88.24
34.4898 -1.78557 138.767
5.55686 -4.24378 33.3174
9.52426 -3.94012 44.4007
23.2318 -1.54752 135.983
12.9166 -3.45551 60.7223
26.2161 -2.2234 92.7013
14.5395 2.25559 72.9004
8.93417 -0.52421 37.0192
-6.8651 4.03274 40.2748
-23.9837 28.2644 179.191
-2.56934 5.99572 45.0053
-7.3617 24.406 141.749
-6.83972 19.3197 112.504
-2.54157 5.97014 41.7515
-2.55268 20.6658 115.418
-31.0595 36.8429 180.634
-15.0456 41.2193 198.946
-26.6072 10.2373 55.9674
-5.50049 11.2917 60.4465
-39.5411 24.1086 118.099
-3.99315 7.2979 41.6492
-5.84726 25.8001 124.98
-4.99199 26.3541 127.465
-44.2596 27.6248 132.832
-41.9222 26.4476 127.533
-32.0991 39.9722 186.645
-55.5181 30.9403 145.917
-16.0443 4.45885 27.7809
-60.081 34.6935 161.767
-24.149 10.1346 52.5084
-47.8509 25.8102 120.616
-29.6562 27.4341 127.887
-10.2673 5.56718 31.9962
-59.442 34.2287 156.195
-34.5614 17.7963 84.8474
-14.195 14.9079 71.834
-6.8503 4.64431 27.532
-12.5113 19.8179 77.8717
25.0198 -20.9638 122.133
12.0643 -14.1972 66.5802
21.73 -16.8316 94.4136
10.8763 -10.9674 39.8648
19.334 -13.1647 63.6978
21.6941 -13.8497 71.7936
26.2802 -18.0802 116.622
12.8827 -12.8597 62.944
16.1117 -13.2282 66.6801
8.83956 -10.6105 39.7398
13.3903 -12.9134 64.4152
10.1557 -10.5214 39.3875
-33.9367 -14.7572 87.0196
15.0977 -11.9656 55.6886
-13.5804 -10.4376 39.9919
-32.7284 -17.3842 121.882
19.2691 -14.1151 89.641
15.6923 -13.1022 82.2114
3.90581 -11.7892 73.5744
3.53846 -11.1391 67.9788
2.3219 -8.90774 39.1154
3.79662 -11.9654 110.028
2.46292 -9.01914 52.9943
18.8252 -11.1911 99.6809
21.2895 -11.436 113.318
2.62696 -10.4511 102.382
24.0686 -11.1042 130.226
24.8593 -10.5695 125.688
28.2802 -10.7501 128.482
-8.60104 -8.68515 76.6106
55.461 -17.2182 327.208
45.8478 -8.55367 306.552
24.9282 -5.92073 132.064
8.35576 -5.18493 44.752
9.69608 -5.0562 52.0473
21.5423 -4.84775 118.478
27.2871 -4.61237 140.371
11.9036 -4.94346 65.4657
11.6318 -4.82556 53.9915
9.42566 -4.89082 37.6467
19.4327 -4.03717 64.256
19.6086 -3.66924 77.7757
14.749 -3.91717 55.0075
21.2986 -2.35908 122.797
16.4564 -3.09079 88.2412
34.4986 -1.78461 138.807
5.55686 -4.24378 33.3174
9.52426 -3.94012 44.4007
23.2369 -1.54664 136.017
12.9165 -3.45551 60.7221
26.2179 -2.22317 92.7087
14.5419 2.25692 72.9156
8.93417 -0.524209 37.0192
-6.86515 4.03281 40.2752
-23.9905 28.2739 179.246
-2.5695 5.99639 45.0088
-7.36219 24.408 141.759
-6.84144 19.3258 112.536
-2.5417 5.97074 41.7546
-2.55343 20.6731 115.455
-31.0674 36.8537 180.684
-15.051 41.2359 199.022
-26.6071 10.2372 55.9673
-5.50149 11.2947 60.4602
-39.5436 24.1105 118.108
-3.99374 7.29976 41.6576
-5.84895 25.809 125.02
-4.99344 26.3632 127.506
-44.2689 27.6318 132.863
-41.9313 26.4545 127.564
-32.1073 39.9838 186.697
-55.5212 30.9424 145.926
-16.0443 4.45885 27.7809
-60.084 34.6955 161.776
-24.1492 10.1348 52.509
-47.8524 25.8112 120.621
-29.6644 27.4432 127.926
-10.2673 5.56718 31.9962
-59.4494 34.2336 156.216
-34.5647 17.7986 84.8572
-14.198 14.9122 71.8524
-6.8503 4.64432 27.532
-12.5146 19.8243 77.8957
25.1466 -21.0425 122.837
12.0637 -14.1967 66.5758
21.6843 -16.8076 94.1799
10.8763 -10.9674 39.8648
19.3319 -13.1639 63.689
21.7569 -13.874 72.0493
27.6459 -18.7357 123.548
12.8823 -12.8595 62.9417
16.1279 -13.2361 66.7639
8.83956 -10.6105 39.7398
13.401 -12.9194 64.48
10.1557 -10.5214 39.3875
-33.61 -14.6684 86.0301
15.0973 -11.9654 55.687
-13.5804 -10.4376 39.9919
-32.1255 -17.1659 119.348
20.81 -14.8062 98.1444
15.6927 -13.1024 82.2142
3.90493 -11.7877 73.5537
3.54288 -11.1464 68.0869
2.3219 -8.90774 39.1154
3.78533 -11.9457 109.643
2.46456 -9.02161 53.0424
18.7896 -11.1803 99.4609
22.8454 -11.8707 122.824
2.77185 -10.7339 109.176
26.6986 -10.9449 136.218
30.3747 -11.1391 139.231
-8.58223 -8.67827 76.4102
76.4782 -21.6589 457.525
63.2343 -9.70583 429.191
27.1194 -5.95652 145.144
8.35579 -5.18493 44.7521
9.69616 -5.0562 52.0479
24.089 -4.76766 134.467
29.6133 -4.53533 153.763
12.1196 -4.93331 66.9578
11.6319 -4.82556 53.9923
9.42567 -4.89082 37.6468
19.4364 -4.0369 64.2711
20.0062 -3.63201 79.6901
14.7621 -3.91578 55.071
24.0742 -1.94488 140.989
16.6165 -3.06713 89.2626
38.6847 -1.33016 157.653
5.55686 -4.24378 33.3174
9.52426 -3.94012 44.4007
25.7366 -1.11769 152.456
12.8927 -3.4593 60.5792
27.0859 -2.11424 96.3259
15.9794 3.03037 81.7709
8.93528 -0.52359 37.0259
-6.9162 4.10235 40.6882
-28.1372 34.0913 212.868
-2.71573 6.62542 48.3516
-7.32932 24.2762 141.064
-7.70862 22.431 128.608
-2.68352 6.58487 44.8573
-2.93254 24.4179 134.269
-34.3627 41.3339 201.496
-17.6691 49.3163 236.195
-26.5675 10.2139 55.8601
-6.32653 13.7703 71.7436
-40.4442 24.7835 121.158
-4.68338 9.45625 51.3911
-6.82629 30.9584 148.208
-5.72219 30.9272 148.057
-49.7847 31.7536 151.379
-47.4132 30.6252 146.308
-35.4457 44.7006 207.716
-54.157 30.048 141.951
-16.0445 4.45896 27.7814
-58.9763 33.9553 158.502
-24.2653 10.2095 52.8377
-48.1064 25.9771 121.345
-34.4422 32.7355 151.055
-10.2676 5.56752 31.9977
-64.0591 37.3104 169.559
-37.0152 19.4466 91.9973
-16.309 17.929 84.8461
-6.85127 4.64571 27.538
-14.2216 23.2551 90.614
25.2263 -21.092 123.279
12.0558 -14.191 66.5214
21.4943 -16.708 93.2089
10.8763 -10.9674 39.8648
19.3151 -13.1572 63.6196
21.9563 -13.9512 72.8604
31.6708 -20.667 143.959
12.877 -12.8564 62.9088
16.18 -13.2613 67.0332
8.83956 -10.6105 39.7398
13.434 -12.9379 64.6801
10.1557 -10.5214 39.3875
-32.9302 -14.4836 83.9714
15.0941 -11.9641 55.6717
-13.5803 -10.4376 39.9917
25.5873 -16.9472 124.507
15.6876 -13.0999 82.1817
3.89339 -11.7686 73.2817
3.55772 -11.1708 68.45
2.32191 -8.90775 39.1156
3.71641 -11.8251 107.29
2.47312 -9.03449 53.2931
18.5435 -11.1055 97.9399
27.772 -13.2462 152.923
3.21691 -11.6019 130.042
32.3714 -12.1022 168.694
36.8713 -12.3451 172.572
170.04 -41.426 1037.65
172.371 -16.9373 1199.01
34.1411 -6.07018 187.058
8.35652 -5.18491 44.7576
9.69859 -5.0561 52.0651
31.9105 -4.52084 183.573
37.1791 -4.28364 197.318
13.2814 -4.87793 74.9817
11.636 -4.82533 54.0168
9.42622 -4.89079 37.65
19.5115 -4.03133 64.5832
21.9691 -3.44734 89.1395
14.8225 -3.90932 55.364
32.6042 -0.671209 196.895
16.5471 -3.07738 88.8201
51.0015 0.00770685 213.105
5.55695 -4.24376 33.3182
9.52426 -3.94012 44.4007
33.7863 0.26475 205.394
12.8107 -3.47232 60.0874
30.3964 -1.69784 110.123
21.3077 5.89997 114.597
9.00117 -0.486893 37.4217
-7.58092 5.0103 46.0678
-43.0958 55.0776 334.156
-3.91668 11.8078 75.8435
-6.41577 20.6129 121.74
-10.0608 30.8543 172.202
-4.06325 12.5859 75.1055
-4.01015 35.0638 187.749
-33.9478 40.7698 198.875
-23.273 66.6125 315.761
-26.4814 10.1632 55.6278
-9.72058 23.9638 118.177
-38.8913 23.6231 115.899
-8.67104 21.9551 107.73
-9.83849 46.8298 219.676
-7.76041 43.6927 205.537
-64.0492 42.4132 199.263
-61.9834 41.7109 196.129
-33.6892 42.2189 196.657
-38.8281 20.0006 97.2838
-16.0457 4.45969 27.7846
-44.4984 24.2832 115.72
-24.1914 10.162 52.6286
-44.6518 23.7208 111.492
-48.4736 48.2782 218.98
-10.277 5.57751 32.0415
-75.6907 45.0745 203.226
-44.1215 24.2271 112.704
-23.3676 28.0202 128.298
-7.21768 5.17701 29.8308
-18.2693 31.3911 120.772
24.9559 -20.9242 121.78
12.0307 -14.1727 66.3477
21.1735 -16.5399 91.5696
10.8762 -10.9674 39.8646
19.26 -13.1352 63.3912
22.1426 -14.0232 73.618
34.0095 -21.789 155.819
12.8584 -12.8456 62.7934
16.2252 -13.2831 67.2672
8.83954 -10.6105 39.7396
13.4594 -12.9521 64.8339
10.1557 -10.5214 39.3874
-32.3519 -14.3263 82.2201
15.0836 -11.9595 55.6215
-13.5802 -10.4376 39.9913
28.3671 -18.1927 139.848
15.6572 -13.085 81.99
3.87293 -11.7347 72.7992
3.57121 -11.193 68.78
2.32198 -8.90786 39.1174
3.62695 -11.6686 104.237
2.48518 -9.05263 53.6465
18.1749 -10.9935 95.6616
30.7862 -14.0875 171.339
3.47366 -12.1023 142.079
35.8322 -12.808 188.507
40.8281 -13.0793 192.879
49.0636 -15.8664 287.541
96.3737 -11.9017 662.947
38.5676 -6.14152 213.481
8.36518 -5.18464 44.8214
9.72475 -5.055 52.251
36.6857 -4.37002 213.553
42.0282 -4.12195 225.233
14.5452 -4.81684 83.7095
11.6786 -4.82298 54.2758
9.43412 -4.89034 37.6954
19.8548 -4.00577 66.0107
23.8745 -3.26733 98.312
14.9218 -3.89868 55.8458
37.8925 0.118521 231.555
16.1387 -3.13773 86.2135
58.2772 0.798143 245.861
5.5582 -4.2435 33.3295
9.52375 -3.9402 44.3974
38.9688 1.15504 239.476
12.6834 -3.49251 59.3239
32.9451 -1.37671 120.745
24.7013 7.72817 135.504
9.56136 -0.173051 40.7876
-8.87732 6.78638 56.5679
-54.7777 71.467 428.876
-4.87671 15.955 97.8308
-5.94631 18.731 111.809
-11.2791 35.2171 194.781
-5.15019 17.3195 98.9489
-4.61673 41.0562 217.853
-24.3419 27.7107 138.21
-21.0862 59.8631 284.712
-11.7237 29.9808 145.582
-36.1539 21.5778 106.629
-10.9022 28.9501 139.255
-11.7831 57.0761 265.815
-8.86783 50.6287 236.767
-70.5987 47.3076 221.249
-68.8233 46.9151 219.517
-23.0855 27.2385 129.897
-16.0518 4.46341 27.8011
-24.0581 10.0761 52.2512
-42.1608 22.0943 104.388
-56.7643 57.4619 259.114
-10.3326 5.63638 32.2991
-79.6497 47.7172 214.686
-47.5357 26.5242 122.653
-27.3799 33.7566 152.997
-10.7207 10.2956 51.804
-19.9363 34.7418 133.192
29.6644 -20.7158 85.7338
29.0157 -19.8476 80.2337
28.758 -18.0492 68.6951
-14.717 -12.0625 32.464
-11.0865 -10.2799 20.1649
-15.6702 -11.6552 32.0202
9.1092 -10.4324 28.9011
12.8425 -12.7798 51.4477
13.9141 -12.7668 53.3305
12.963 -12.4907 51.3488
12.9512 -14.6133 72.4067
6.99335 -9.04175 19.5038
-26.0821 -13.4982 64.9054
-14.1305 -9.72003 26.9074
-10.896 -9.38194 24.2808
9.41712 -11.1399 42.9841
8.04576 -9.4401 25.7452
11.8215 -10.7247 39.1985
-18.5688 -12.5082 60.8577
-18.0085 -11.8916 59.1844
-25.4681 -11.9974 61.4029
-12.7939 -8.42971 23.2267
-12.5534 -8.22491 22.6128
5.03875 -12.0142 79.1861
2.63027 -9.24802 48.8366
2.39464 -8.99474 47.8683
-22.4608 -9.25437 53.3609
2.17675 -8.89637 47.2577
1.46367 -8.31706 44.598
1.16087 -6.94109 17.2672
14.2505 -9.16098 68.7169
9.83253 -7.92213 40.4428
2.54004 -7.20465 25.5306
10.7165 -6.86255 23.6719
41.8934 -9.11102 97.7407
32.2081 -8.02128 64.4012
8.54905 -6.93959 36.4505
8.86417 -5.69021 45.7923
14.5945 -5.84357 84.508
4.95514 -5.5634 18.8991
6.1774 -5.52888 28.5768
10.8572 -5.17752 60.1776
10.2918 -4.87407 58.9121
9.1734 -4.99224 45.2934
5.87175 -5.1507 20.3525
13.0298 -4.74779 63.8873
10.4872 -4.71618 59.2078
6.58776 -5.05633 21.9028
11.0061 -4.26647 86.3842
7.3831 -4.73534 31.9782
13.7879 -4.23579 64.9588
14.606 -4.14529 52.739
18.0454 -3.33452 69.0937
22.3813 -2.89817 76.7254
12.009 0.158653 46.2259
17.9451 3.57665 80.4947
22.7052 4.97952 95.3875
-9.58227 6.93724 54.7903
-0.935803 6.25771 45.7931
-2.07523 -0.874833 6.9596
-2.45843 8.57787 50.6104
-26.4694 6.93558 41.8529
-8.44272 6.03497 36.6766
-0.334385 -4.11036 -9.81731
-15.0895 10.6878 57.1186
-1.51763 3.65951 24.9085
-49.2336 18.5533 91.867
-8.14798 3.36999 23.1074
-26.864 11.7238 59.5929
-21.9095 11.5397 58.5854
-20.2635 11.3969 57.6191
19.386 18.5422 86.65
-2.17895 -1.98877 -1.31279
17.3276 19.8835 90.2999
31.5487 -24.483 170.129
11.1304 -12.4058 64.3387
22.0658 -16.0524 102.803
10.5736 -9.61137 40.8914
18.3551 -11.6561 63.7143
22.7249 -13.1586 80.8898
20.6839 -14.3814 94.3416
12.0345 -11.2399 61.6603
15.194 -11.6718 66.2052
8.57277 -9.22147 40.1717
12.5072 -11.2966 63.1479
9.85828 -9.17031 40.1856
-34.4237 -13.4908 90.7846
13.9131 -10.3037 53.4897
-14.1256 -9.641 47.5211
-42.3025 -18.7122 158.281
16.6996 -11.8866 80.8116
11.8132 -10.0851 61.7129
4.10865 -11.691 93.8278
3.50962 -10.2763 76.7572
2.47921 -7.53194 37.7805
3.34764 -11.9012 140.193
2.4582 -7.68208 52.3621
19.2407 -10.212 110.209
20.7482 -10.1701 118.633
1.85443 -8.61754 92.2305
29.3142 -11.1247 175.41
25.4481 -9.47461 138.805
22.0529 -8.41693 103.241
-9.69852 -7.68675 87.6608
52.5038 -15.1803 335.424
41.5711 -6.38024 303.834
25.0906 -4.47336 143.502
9.31974 -4.04872 55.1411
11.7377 -3.78052 71.4598
13.4654 -3.92083 72.6603
31.0589 -2.82562 174.64
11.3161 -3.82544 65.7509
14.248 -3.4722 74.9378
9.46829 -3.88143 40.2438
28.9652 -1.9193 110.31
23.1214 -1.98581 101.05
13.2537 -3.0232 51.0795
12.8734 -2.41667 72.4985
15.0102 -2.02476 84.9744
32.5367 -0.406793 138.17
5.72178 -3.28776 35.3338
10.0934 -2.79071 51.0912
22.4127 -0.00481848 141.696
9.56683 -2.99381 43.1073
34.657 0.423429 135.574
12.371 2.23416 63.661
8.82731 0.223014 38.4983
-5.59507 3.87614 37.7118
-26.3134 30.5227 184.644
-1.86077 5.46187 41.0596
-10.5868 31.876 174.797
-5.98281 15.8792 91.7412
-2.08023 6.40265 42.9913
-1.44857 10.7434 63.8747
-35.4894 41.6837 197.173
-18.1751 45.4271 211.725
-23.6711 9.70728 52.769
-5.14508 11.4853 60.2956
-43.2361 27.514 130.127
-2.66785 5.61376 33.9881
-4.78369 19.0103 92.2871
-5.07629 23.4224 111.458
-39.6298 24.9217 117.694
-32.931 20.4816 98.4579
-36.6579 45.0643 203.333
-45.8669 25.4279 118.537
-12.4925 3.60934 24.48
-68.202 40.5658 182.554
-23.8803 11.1528 56.2894
-58.4004 33.334 149.645
-18.9945 16.5591 78.915
-8.27284 5.00231 29.8001
-69.0704 41.0704 181.036
-24.6899 12.3228 60.3804
-9.30836 9.35455 47.6022
-4.95055 3.72699 24.138
-8.29482 12.7875 52.0093
31.549 -24.4831 170.13
11.1304 -12.4058 64.3387
22.0658 -16.0524 102.803
10.5736 -9.61137 40.8914
18.3551 -11.6561 63.7143
22.7249 -13.1586 80.8898
20.6845 -14.3817 94.3448
12.0345 -11.2399 61.6603
15.194 -11.6718 66.2052
8.57277 -9.22147 40.1717
12.5072 -11.2966 63.1479
9.85828 -9.17031 40.1856
-34.4236 -13.4908 90.7842
13.9131 -10.3037 53.4897
-14.1256 -9.641 47.5211
-42.3015 -18.7119 158.277
16.6996 -11.8866 80.8117
11.8132 -10.0851 61.7129
4.10865 -11.691 93.8278
3.50962 -10.2763 76.7572
2.47921 -7.53194 37.7805
3.34764 -11.9012 140.193
2.4582 -7.68208 52.3621
19.2406 -10.212 110.209
20.7491 -10.1703 118.64
1.85444 -8.61761 92.2325
29.314 -11.1246 175.408
25.4508 -9.47513 138.821
22.0551 -8.41733 103.253
-9.69852 -7.68675 87.6608
52.5622 -15.1922 335.818
41.618 -6.3822 304.2
25.0933 -4.47333 143.52
9.31974 -4.04872 55.1411
11.7377 -3.78052 71.4598
13.4659 -3.9208 72.6635
31.0619 -2.82544 174.658
11.3161 -3.82544 65.7509
14.248 -3.4722 74.9378
9.46829 -3.88143 40.2438
28.9652 -1.9193 110.31
23.1214 -1.9858 101.05
13.2537 -3.0232 51.0795
12.8741 -2.41652 72.5038
15.0102 -2.02476 84.9745
32.5448 -0.405677 138.209
5.72178 -3.28776 35.3338
10.0934 -2.79071 51.0912
22.4161 -0.00405844 141.72
9.56683 -2.99381 43.1073
34.6573 0.423471 135.575
12.371 2.23417 63.6611
8.82731 0.223014 38.4983
-5.59507 3.87614 37.7118
-26.3236 30.5357 184.716
-1.86077 5.46187 41.0596
-10.5873 31.8777 174.805
-5.98451 15.8841 91.7653
-2.08023 6.40265 42.9913
-1.44882 10.7448 63.8813
-35.4995 41.6963 197.23
-18.1837 45.4491 211.823
-23.6711 9.70728 52.769
-5.14508 11.4853 60.2956
-43.2377 27.5152 130.132
-2.66785 5.61376 33.9881
-4.78646 19.0212 92.3344
-5.07866 23.4329 111.503
-39.6427 24.931 117.734
-32.938 20.4867 98.4801
-36.6691 45.079 203.396
-45.8709 25.4304 118.548
-12.4925 3.60934 24.48
-68.2059 40.5683 182.565
-23.8803 11.1528 56.2894
-58.4014 33.3346 149.648
-19.0006 16.5655 78.9419
-8.27284 5.00231 29.8001
-69.0775 41.0751 181.056
-24.6899 12.3228 60.3804
-9.30836 9.35455 47.6022
-4.95055 3.72699 24.138
-8.29487 12.7876 52.0097
31.5492 -24.4832 170.131
11.1304 -12.4058 64.3387
22.0658 -16.0524 102.803
10.5736 -9.61137 40.8914
18.3551 -11.6561 63.7143
22.7249 -13.1586 80.8898
20.6849 -14.3819 94.3468
12.0345 -11.2399 61.6603
15.194 -11.6718 66.2052
8.57277 -9.22147 40.1717
12.5072 -11.2966 63.1479
9.85828 -9.17031 40.1856
-34.4235 -13.4908 90.7839
13.9131 -10.3037 53.4897
-14.1256 -9.641 47.5211
-42.3009 -18.7117 158.275
16.6996 -11.8866 80.8117
11.8132 -10.0851 61.7129
4.10865 -11.691 93.8278
3.50962 -10.2763 76.7572
2.47921 -7.53194 37.7805
3.34764 -11.9012 140.193
2.4582 -7.68208 52.3621
19.2406 -10.212 110.208
20.7497 -10.1705 118.643
1.85445 -8.61766 92.2338
29.3139 -11.1246 175.407
25.4524 -9.47545 138.831
22.0565 -8.41759 103.261
-9.69852 -7.68675 87.6608
52.5991 -15.1997 336.067
41.6477 -6.38344 304.432
25.095 -4.47331 143.531
9.31974 -4.04872 55.1411
11.7377 -3.78052 71.4598
13.4661 -3.92078 72.6654
31.0637 -2.82532 174.67
11.3161 -3.82544 65.7509
14.248 -3.4722 74.9378
9.46829 -3.88143 40.2438
28.9652 -1.9193 110.31
23.1214 -1.9858 101.05
13.2537 -3.0232 51.0795
12.8746 -2.41643 72.5072
15.0102 -2.02476 84.9745
32.5499 -0.404975 138.233
5.72178 -3.28776 35.3338
10.0934 -2.79071 51.0912
22.4183 -0.00357892 141.736
9.56683 -2.99381 43.1073
34.6574 0.423497 135.576
12.371 2.23418 63.6611
8.82731 0.223014 38.4983
-5.59507 3.87614 37.7118
-26.33 30.5439 184.761
-1.86077 5.46187 41.0596
-10.5877 31.8788 174.811
-5.9856 15.8872 91.7807
-2.08023 6.40265 42.9913
-1.44897 10.7457 63.8856
-35.5058 41.7043 197.266
-18.1891 45.4632 211.886
-23.6711 9.70728 52.769
-5.14508 11.4853 60.2956
-43.2387 27.5159 130.135
-2.66785 5.61376 33.9881
-4.78823 19.0281 92.3646
-5.08018 23.4397 111.533
-39.6508 24.9369 117.76
-32.9423 20.49 98.4942
-36.6761 45.0882 203.436
-45.8732 25.4319 118.554
-12.4925 3.60934 24.48
-68.2081 40.5698 182.571
-23.8803 11.1528 56.2894
-58.4019 33.335 149.65
-19.0044 16.5695 78.959
-8.27284 5.00231 29.8001
-69.0819 41.078 181.068
-24.6899 12.3228 60.3804
-9.30836 9.35455 47.6022
-4.95055 3.72699 24.138
-8.2949 12.7876 52.0098
31.5887 -24.5091 170.368
11.1304 -12.4058 64.3387
22.0636 -16.0512 102.791
10.5736 -9.61137 40.8914
18.3551 -11.6561 63.7142
22.7257 -13.1589 80.893
20.8694 -14.4741 95.3479
12.0345 -11.2399 61.6603
15.194 -11.6718 66.2052
8.57277 -9.22147 40.1717
12.5072 -11.2966 63.1479
9.85828 -9.17031 40.1856
-34.3888 -13.4823 90.6853
13.9131 -10.3037 53.4897
-14.1256 -9.641 47.5211
-42.0577 -18.6335 157.331
16.7064 -11.8898 80.8521
11.8132 -10.0851 61.7129
4.10864 -11.6909 93.8275
3.50963 -10.2763 76.7574
2.47921 -7.53194 37.7805
3.34637 -11.8968 140.1
2.4582 -7.68208 52.3621
19.2335 -10.2098 110.161
21.065 -10.2592 120.742
1.85832 -8.64446 92.9381
26.2893 -9.64017 144.011
22.8301 -8.55619 107.513
-9.69765 -7.68651 87.653
71.2039 -18.999 461.8
57.3029 -7.03692 426.724
26.0221 -4.46465 149.544
9.31974 -4.04872 55.1411
11.7377 -3.78052 71.4598
13.7055 -3.90571 74.3095
32.0532 -2.76318 180.836
11.3165 -3.82541 65.7538
14.248 -3.4722 74.9378
9.46829 -3.88143 40.2438
28.9652 -1.9193 110.31
23.1301 -1.98473 101.095
13.2537 -3.0232 51.0795
13.2946 -2.33405 75.5324
15.0134 -2.02413 84.9971
35.2884 -0.0276022 151.283
5.72178 -3.28776 35.3338
10.0934 -2.79071 51.0912
23.6401 0.267659 150.56
9.56683 -2.99381 43.1073
34.7487 0.437492 135.976
12.3787 2.239 63.7129
8.82731 0.223014 38.4983
-5.59507 3.87614 37.7118
-30.4775 35.8437 214.163
-1.86077 5.46187 41.0596
-10.5637 31.8049 174.436
-6.68214 17.8662 101.64
-2.08023 6.40265 42.9913
-1.61541 11.6834 68.4305
-38.3022 45.2318 213.093
-20.9822 52.6676 243.865
-23.6711 9.70728 52.769
-5.14556 11.4865 60.3009
-43.6081 27.7832 131.306
-2.66785 5.61376 33.9881
-6.04692 23.967 113.834
-5.9584 27.3373 128.475
-44.891 28.7349 134.232
-36.4517 23.0727 109.715
-39.6679 49.0154 220.333
-44.9118 24.8176 115.914
-12.4925 3.60934 24.48
-67.4006 40.0434 180.323
-23.8803 11.1528 56.2894
-58.495 33.3942 149.9
-22.6421 20.3832 95.0794
-8.27284 5.00231 29.8001
-72.0348 42.9991 189.126
-24.699 12.3287 60.4051
-9.30841 9.35463 47.6025
-4.95055 3.72699 24.138
-8.32413 12.841 52.2018
31.6139 -24.5255 170.518
11.1304 -12.4058 64.3387
22.0545 -16.0462 102.741
10.5736 -9.61137 40.8914
18.355 -11.6561 63.7142
22.7281 -13.1598 80.9033
21.8692 -14.9734 100.774
12.0345 -11.2399 61.6603
15.194 -11.6718 66.2052
8.57277 -9.22147 40.1717
12.5072 -11.2966 63.1479
9.85828 -9.17031 40.1856
-34.3219 -13.4658 90.4948
13.9131 -10.3037 53.4897
-14.1256 -9.641 47.5211
16.7762 -11.9225 81.2683
11.8132 -10.0851 61.7129
4.10855 -11.6907 93.8241
3.50964 -10.2764 76.7579
2.47921 -7.53194 37.7805
3.33891 -11.8707 139.554
2.4582 -7.68208 52.3621
19.186 -10.1953 109.841
22.9323 -10.7844 133.17
1.8822 -8.8092 97.2681
29.8105 -10.3331 165.803
27.0461 -9.31103 130.683
156.795 -36.477 1040.22
156.341 -11.1709 1200.37
30.4484 -4.42308 178.25
9.31974 -4.04872 55.1411
11.7377 -3.78052 71.4598
18.5819 -3.59582 107.765
36.4903 -2.48446 208.486
11.3194 -3.82516 65.7758
14.248 -3.4722 74.9378
9.46829 -3.88143 40.2438
28.9658 -1.91924 110.313
23.1882 -1.97753 101.392
13.2537 -3.0232 51.0795
20.5867 -0.90006 128.003
15.012 -2.02441 84.9871
45.8516 1.42822 201.621
5.72178 -3.28776 35.3338
10.0934 -2.79071 51.0912
29.4779 1.56384 192.718
9.56683 -2.99381 43.1073
35.2259 0.510655 138.071
12.5442 2.34258 64.8246
8.82731 0.223014 38.4983
-5.59507 3.87614 37.7118
-47.0447 57.0144 331.612
-1.86077 5.46187 41.0597
-9.97562 29.9895 165.225
-9.68235 26.394 144.119
-2.08023 6.40265 42.9913
-3.79893 24.0513 128.349
-37.9347 44.7682 211.013
-27.4861 69.4445 318.335
-23.6711 9.70728 52.769
-5.17949 11.5716 60.6758
-42.9877 27.3343 129.34
-2.66785 5.61376 33.9881
-10.8576 42.8481 195.907
-9.02391 40.945 187.623
-60.474 40.0296 183.22
-52.1126 34.6007 159.797
-38.0657 46.9123 211.285
-38.9583 21.0138 99.5656
-12.4925 3.60934 24.48
-58.8173 34.4486 156.426
-23.8803 11.1528 56.2894
-57.3512 32.6654 146.822
-41.5218 40.1839 178.768
-8.27284 5.00231 29.8001
-80.9092 48.7726 213.342
-24.7738 12.3777 60.6105
-9.31387 9.36183 47.6325
-4.95055 3.72699 24.138
-8.98843 14.0556 56.5649
31.5294 -24.4704 170.013
11.1304 -12.4058 64.3387
22.0401 -16.0384 102.662
10.5736 -9.61137 40.8914
18.355 -11.6561 63.7141
22.7305 -13.1608 80.9134
22.9155 -15.4958 106.451
12.0345 -11.2399 61.6603
15.194 -11.6718 66.2052
8.57277 -9.22147 40.1717
12.5072 -11.2966 63.1479
9.85828 -9.17031 40.1856
-34.2701 -13.4531 90.3473
13.9131 -10.3037 53.4897
-14.1256 -9.641 47.5211
16.9242 -11.9917 82.1498
11.8132 -10.0851 61.7128
4.10839 -11.6903 93.818
3.50965 -10.2764 76.7583
2.47921 -7.53194 37.7805
3.32995 -11.8395 138.899
2.4582 -7.68208 52.3621
19.1196 -10.175 109.394
24.8359 -11.3196 145.839
1.90929 -8.99524 102.159
32.4971 -10.8617 182.429
30.7491 -9.97368 151.031
47.2031 -14.0978 299.601
87.4288 -8.29441 662.055
34.0658 -4.389 201.71
9.31974 -4.04872 55.1411
11.7377 -3.78052 71.4599
24.7012 -3.20524 149.727
40.0811 -2.25883 230.862
11.3249 -3.82467 65.8184
14.248 -3.4722 74.9378
9.46829 -3.88143 40.2438
28.9684 -1.91898 110.324
23.2783 -1.96636 101.855
13.2537 -3.0232 51.0795
27.4095 0.442621 177.081
15.0043 -2.0259 84.9333
52.8204 2.38871 234.829
5.72178 -3.28776 35.3338
10.0934 -2.79071 51.0912
34.0806 2.58587 225.955
9.56683 -2.99381 43.1073
35.7675 0.593714 140.449
13.2535 2.78651 69.5879
8.82731 0.223014 38.4983
-5.59507 3.87614 37.7118
-60.3614 74.0314 426.017
-1.8608 5.46195 41.0601
-9.73365 29.2426 161.435
-11.4724 31.4827 169.467
-2.08023 6.40266 42.9913
-5.33873 32.7826 170.646
-30.9408 35.946 171.429
-24.8967 62.7651 288.686
-5.5727 12.5589 65.0238
-42.0785 26.6765 126.459
-2.66785 5.61376 33.9881
-13.8878 54.741 247.604
-10.7645 48.6719 221.208
-67.8805 45.3978 206.503
-60.5573 40.8171 186.803
-30.1731 36.5521 166.708
-12.4925 3.60934 24.48
-23.8803 11.1528 56.2894
-56.6813 32.2386 145.02
-52.5678 51.7692 227.733
-8.27284 5.00231 29.8001
-84.2923 50.9736 222.574
-24.8793 12.4468 60.9
-9.43437 9.52094 48.2962
-4.95055 3.72699 24.138
-10.2889 16.4352 65.1124
39.0111 -24.6694 124.381
38.8877 -23.8485 119.271
34.2224 -19.3992 89.7177
-15.1784 -11.3769 39.6298
-11.1105 -9.53643 26.7601
-16.1771 -10.9482 39.1715
10.917 -10.1783 40.5512
14.9726 -12.8861 67.0974
16.4063 -12.9789 70.4091
15.1601 -12.5726 67.233
16.4958 -16.3098 104.93
10.4072 -9.53875 39.8211
-28.0591 -12.8483 74.3432
-14.4513 -8.92276 33.8205
-10.9952 -8.57842 31.0888
10.8144 -10.8075 55.2616
9.79276 -9.06673 37.2437
13.002 -10.0691 47.9158
-21.0303 -12.1679 74.1365
-20.1373 -11.4101 71.3879
-28.4869 -11.5229 73.9254
-12.9598 -7.57312 29.9433
-12.6916 -7.3591 29.294
5.7921 -12.7417 112.699
2.91148 -8.4476 58.5383
2.66276 -8.15202 57.0252
-23.9158 -8.35288 61.9838
2.43157 -8.02862 55.9827
1.70416 -7.36285 51.8813
1.86065 -6.07101 24.6675
18.7258 -9.18848 102.863
11.7381 -7.25768 54.9712
3.72033 -6.75803 45.2684
12.9697 -6.06699 34.9215
62.2545 -9.49168 159.91
39.3424 -7.38525 86.8759
10.3164 -6.1163 50.4724
9.45646 -4.60103 53.0804
20.5902 -4.57572 137.401
6.06422 -4.57195 27.4063
7.72493 -4.47638 41.8829
14.0573 -3.81982 89.6016
13.2603 -3.42712 87.3813
9.86293 -3.86322 53.1122
7.16025 -4.09708 29.7089
17.3725 -3.18115 97.7738
13.5695 -3.20894 88.2161
7.97898 -3.97982 31.6676
15.8683 -2.0777 147.743
9.29994 -3.47974 47.305
18.5933 -2.44363 100.505
16.8258 -2.77387 67.6151
27.0143 -0.775159 119.177
32.0027 -0.276502 124.01
13.9438 2.18758 60.2312
24.7981 8.97557 126.195
33.8939 12.4306 160.892
-11.1442 9.98282 69.4797
-1.22221 10.2956 65.0402
-0.145539 -1.99754 1.89866
-3.05223 12.5724 68.0401
-27.4848 8.61225 48.933
-4.54857 2.64912 21.4376
0.898281 -3.62522 -6.37892
-18.2087 15.0046 75.1796
1.08549 -3.83476 -7.35117
-72.9132 30.961 143.913
-6.24952 3.0169 21.9393
-32.7442 16.5349 79.3051
-26.5027 16.1296 77.3454
-24.3101 15.792 75.5184
30.4159 35.6704 156.035
-1.02667 -1.36649 2.53365
25.5999 35.7057 153.026
30.2516 -23.6361 162.376
18.3532 -11.6554 63.7063
22.7341 -13.1622 80.9289
8.57277 -9.22147 40.1717
9.85828 -9.17031 40.1856
-33.7459 -13.3242 88.8548
2.47921 -7.53194 37.7805
18.5639 -10.0049 105.65
32.9058 -10.9421 184.957
43.7967 -13.4021 276.58
11.388 -3.81913 66.2997
9.46829 -3.88143 40.2438
13.2538 -3.02319 51.0797
53.6962 2.50941 239.003
14.0304 -2.0651 71.8966
15.6666 4.2967 85.7833
8.82731 0.223014 38.4983
-60.2158 73.8453 424.985
-1.86443 5.47363 41.1197
-9.00973 27.0082 150.099
-12.0551 33.139 177.718
-24.9329 62.8585 289.101
-14.1435 55.7446 251.967
-11.0114 49.7677 225.972
-69.2337 46.3787 210.757
-28.3093 34.1058 156.182
-12.4925 3.60934 24.48
-4.95055 3.72699 24.138
-13.8062 22.8756 88.2429
32.5987 -25.3314 183.021
11.4899 -12.0451 65.3859
21.4759 -15.3646 100.8
10.8741 -9.0954 40.0858
18.1684 -11.065 62.257
22.5388 -12.6386 80.3271
18.3065 -12.7341 81.5181
12.144 -10.6996 60.6774
14.6077 -10.8211 61.8104
8.96112 -8.72411 39.4274
12.4948 -10.6956 61.4647
10.1943 -8.67211 39.4124
-34.411 -13.1289 91.9003
14.1447 -9.83662 53.2282
-15.0904 -9.76298 54.1143
-45.3991 -19.0112 168.033
17.624 -11.8861 86.6191
11.0368 -9.0884 54.0706
4.18447 -11.4926 97.5607
3.76495 -10.0455 79.9373
3.11923 -7.10505 37.2182
2.86341 -11.5784 143.039
2.95284 -7.30599 52.8188
18.809 -9.72382 109.158
20.5802 -9.7949 120.183
1.91537 -8.17452 91.4723
29.7272 -10.9804 185.562
25.2868 -9.11543 141.807
17.9693 -7.28245 80.8066
-9.84175 -7.3712 90.6658
50.2537 -14.671 339.122
38.6814 -5.81529 299.663
24.0999 -4.06214 141.189
9.96468 -3.68235 57.8329
12.6844 -3.35025 78.2346
12.2111 -3.67158 62.4063
31.48 -2.2883 184.191
11.4341 -3.49297 64.899
15.2933 -3.02108 81.7078
9.84675 -3.57753 39.6494
31.5291 -1.22953 123.805
23.7743 -1.50456 105.873
13.3591 -2.7428 49.9478
12.0261 -2.29982 64.8026
15.1854 -1.64243 86.333
31.6867 -0.0413766 137.173
6.43515 -2.94544 36.7275
11.2632 -2.28617 57.196
21.2808 0.257409 137.706
9.96716 -2.69966 42.7982
36.7312 1.25118 148.103
12.4665 2.40057 62.7222
9.25478 0.393871 38.0185
-5.1947 4.51709 40.5182
-27.4114 31.1164 186.032
-1.17025 5.61608 41.2272
-12.2259 34.337 185.613
-5.49117 15.1864 87.3727
-1.62323 7.15557 46.0593
-0.872806 10.2039 60.5818
-37.4624 43.1421 202.235
-19.8969 46.8978 216.644
-24.0031 10.5187 55.8214
-5.36537 13.2531 67.5032
-43.8751 28.103 131.693
-2.13754 6.35361 36.8449
-3.83515 16.4212 80.3936
-4.87667 22.4819 106.556
-37.7255 23.8196 112.021
-30.1054 18.8351 90.5735
-38.928 46.871 209.579
-40.0046 22.0259 103.113
-11.4851 3.81216 25.0934
-71.6711 42.6131 189.869
-25.0549 12.5012 61.4981
-62.3402 35.8277 159.031
-16.4457 14.5738 69.9781
-8.0403 5.8372 33.0057
-69.8215 41.3878 181.092
-23.639 12.2654 59.6598
-8.95625 9.94858 49.6862
-3.98314 3.8506 24.449
-7.75668 13.0694 52.8145
32.5989 -25.3315 183.023
11.4899 -12.0451 65.3859
21.4759 -15.3646 100.8
10.8741 -9.0954 40.0858
18.1684 -11.065 62.257
22.5388 -12.6386 80.3271
18.3065 -12.7342 81.5184
12.144 -10.6996 60.6774
14.6077 -10.8211 61.8104
8.96112 -8.72411 39.4274
12.4948 -10.6956 61.4647
10.1943 -8.67211 39.4124
-34.4109 -13.1289 91.9002
14.1447 -9.83662 53.2282
-15.0904 -9.76298 54.1143
-45.3982 -19.0109 168.03
17.624 -11.8861 86.6191
11.0368 -9.0884 54.0706
4.18447 -11.4926 97.5607
3.76495 -10.0455 79.9373
3.11923 -7.10505 37.2182
2.86341 -11.5784 143.039
2.95284 -7.30599 52.8188
18.809 -9.72382 109.158
20.5806 -9.79502 120.186
1.91537 -8.17454 91.4727
29.7271 -10.9803 185.561
25.2887 -9.11581 141.819
17.9697 -7.28252 80.8089
-9.84175 -7.3712 90.6658
50.3063 -14.6823 339.506
38.7246 -5.81698 300.033
24.1016 -4.06211 141.201
9.96468 -3.68235 57.8329
12.6844 -3.35025 78.2346
12.2112 -3.67158 62.4063
31.4821 -2.28815 184.206
11.4341 -3.49297 64.899
15.2933 -3.02108 81.7078
9.84675 -3.57753 39.6494
31.5291 -1.22953 123.805
23.7743 -1.50456 105.873
13.3591 -2.7428 49.9478
12.0261 -2.29982 64.8026
15.1854 -1.64243 86.333
31.6929 -0.040441 137.204
6.43515 -2.94544 36.7275
11.2632 -2.28617 57.196
21.283 0.257972 137.724
9.96716 -2.69966 42.7982
36.7314 1.2512 148.104
12.4665 2.40057 62.7222
9.25478 0.393871 38.0185
-5.1947 4.51709 40.5182
-27.4217 31.1287 186.099
-1.17025 5.61608 41.2272
-12.2264 34.3385 185.62
-5.49225 15.1891 87.3858
-1.62323 7.15557 46.0593
-0.872808 10.2039 60.5819
-37.4719 43.1533 202.286
-19.9059 46.9185 216.735
-24.0031 10.5187 55.8214
-5.36537 13.2531 67.5032
-43.8762 28.1038 131.697
-2.13754 6.35361 36.8449
-3.83712 16.4277 80.4217
-4.87894 22.4902 106.592
-37.7371 23.8278 112.056
-30.1078 18.8367 90.5808
-38.9389 46.8845 209.637
-40.0071 22.0275 103.119
-11.4851 3.81216 25.0934
-71.6747 42.6154 189.879
-25.0549 12.5012 61.4981
-62.3409 35.8281 159.033
-16.4462 14.5743 69.98
-8.0403 5.8372 33.0057
-69.8279 41.3919 181.109
-23.639 12.2654 59.6598
-8.95625 9.94858 49.6862
-3.98314 3.8506 24.449
-7.75668 13.0694 52.8145
32.599 -25.3316 183.023
11.4899 -12.0451 65.3859
21.4759 -15.3646 100.8
10.8741 -9.0954 40.0858
18.1684 -11.065 62.257
22.5388 -12.6386 80.3271
18.3066 -12.7342 81.5186
12.144 -10.6996 60.6774
14.6077 -10.8211 61.8104
8.96112 -8.72411 39.4274
12.4948 -10.6956 61.4647
10.1943 -8.67211 39.4124
-34.4109 -13.1289 91.9
14.1447 -9.83662 53.2282
-15.0904 -9.76298 54.1143
-45.3977 -19.0108 168.028
17.624 -11.8861 86.6191
11.0368 -9.0884 54.0706
4.18447 -11.4926 97.5607
3.76495 -10.0455 79.9373
3.11923 -7.10505 37.2182
2.86341 -11.5784 143.039
2.95284 -7.30599 52.8188
18.809 -9.72381 109.158
20.5809 -9.7951 120.188
1.91537 -8.17455 91.473
29.727 -10.9803 185.56
25.2899 -9.11606 141.827
17.97 -7.28257 80.8103
-9.84175 -7.3712 90.6658
50.3397 -14.6895 339.749
38.7519 -5.81804 300.267
24.1028 -4.06209 141.209
9.96468 -3.68235 57.8329
12.6844 -3.35025 78.2346
12.2112 -3.67158 62.4063
31.4834 -2.28805 184.215
11.4341 -3.49297 64.899
15.2933 -3.02108 81.7078
9.84675 -3.57753 39.6494
31.5291 -1.22953 123.805
23.7743 -1.50456 105.873
13.3591 -2.7428 49.9478
12.0261 -2.29982 64.8027
15.1854 -1.64243 86.333
31.6968 -0.0398514 137.224
6.43515 -2.94544 36.7275
11.2632 -2.28617 57.196
21.2845 0.258327 137.735
9.96716 -2.69966 42.7982
36.7315 1.25122 148.104
12.4665 2.40057 62.7222
9.25478 0.393871 38.0185
-5.1947 4.51709 40.5182
-27.4283 31.1364 186.142
-1.17025 5.61608 41.2272
-12.2268 34.3394 185.625
-5.49294 15.1908 87.3942
-1.62323 7.15557 46.0593
-0.87281 10.2039 60.5819
-37.4779 43.1605 202.317
-19.9116 46.9316 216.793
-24.0031 10.5187 55.8214
-5.36537 13.2531 67.5032
-43.8769 28.1043 131.699
-2.13754 6.35361 36.8449
-3.83838 16.4319 80.4398
-4.8804 22.4955 106.615
-37.7445 23.833 112.078
-30.1093 18.8378 90.5854
-38.9458 46.893 209.673
-40.0085 22.0283 103.123
-11.4851 3.81216 25.0934
-71.6767 42.6167 189.884
-25.0549 12.5012 61.4981
-62.3413 35.8284 159.034
-16.4465 14.5746 69.9812
-8.0403 5.8372 33.0057
-69.832 41.3944 181.12
-23.639 12.2654 59.6598
-8.95625 9.94858 49.6862
-3.98314 3.8506 24.449
-7.75668 13.0694 52.8145
32.6281 -25.3518 183.21
11.4899 -12.0451 65.3859
21.4754 -15.3644 100.797
10.8741 -9.0954 40.0858
18.1684 -11.065 62.257
22.5389 -12.6386 80.3276
18.3243 -12.7435 81.6209
12.144 -10.6996 60.6774
14.6077 -10.8211 61.8104
8.96112 -8.72411 39.4274
12.4948 -10.6956 61.4647
10.1943 -8.67211 39.4124
-34.3968 -13.1256 91.8615
14.1447 -9.83662 53.2282
-15.0904 -9.76298 54.1143
-45.1964 -18.9495 167.281
17.6243 -11.8862 86.6211
11.0368 -9.0884 54.0706
4.18447 -11.4926 97.5606
3.76495 -10.0455 79.9373
3.11923 -7.10505 37.2182
2.86326 -11.5754 142.975
2.95284 -7.30599 52.8188
18.8052 -9.72258 109.13
20.7193 -9.83637 121.181
1.91453 -8.18001 91.6194
25.9027 -9.24193 145.895
18.1213 -7.31078 81.6953
-9.84143 -7.37113 90.6632
67.3324 -18.3316 463.781
53.2188 -6.38363 423.926
24.7345 -4.05223 145.62
9.96468 -3.68235 57.8329
12.6844 -3.35025 78.2346
12.2126 -3.67147 62.4173
32.2086 -2.23524 189.065
11.4341 -3.49296 64.8992
15.2933 -3.02108 81.7078
9.84675 -3.57753 39.6494
31.5291 -1.22953 123.806
23.7764 -1.50426 105.885
13.3591 -2.7428 49.9478
12.0299 -2.29899 64.8322
15.1857 -1.64237 86.3353
33.9028 0.291511 148.31
6.43515 -2.94544 36.7275
11.2632 -2.28617 57.196
22.1355 0.469237 144.411
9.96716 -2.69966 42.7982
36.7802 1.25925 148.329
12.4668 2.40079 62.7245
9.25478 0.393871 38.0185
-5.1947 4.51709 40.5182
-31.7168 36.2376 214.221
-1.17025 5.61608 41.2272
-12.2029 34.2766 185.309
-5.99602 16.4298 93.5218
-1.62323 7.15557 46.0593
-0.874744 10.2123 60.6223
-40.1645 46.3575 216.57
-22.9011 53.791 247.033
-24.0031 10.5187 55.8214
-5.36537 13.2531 67.5033
-44.1351 28.2853 132.486
-2.13754 6.35361 36.8449
-5.00292 20.2812 97.0604
-5.79797 25.8555 121.122
-42.7528 27.3526 127.236
-31.5907 19.8937 95.143
-41.8979 50.551 225.305
-39.4351 21.6718 101.6
-11.4851 3.81216 25.0934
-70.9355 42.1464 187.889
-25.0549 12.5012 61.4981
-62.4097 35.8708 159.212
-16.9361 15.065 72.0414
-8.0403 5.8372 33.0057
-72.5567 43.1197 188.31
-23.639 12.2654 59.6599
-8.95625 9.94858 49.6862
-3.98314 3.8506 24.449
-7.75782 13.0713 52.8215
32.6466 -25.3646 183.328
11.4899 -12.0451 65.3859
21.4734 -15.3632 100.785
10.8741 -9.0954 40.0858
18.1684 -11.065 62.257
22.5393 -12.6388 80.3294
18.4395 -12.8043 82.2853
12.144 -10.6996 60.6774
14.6077 -10.8211 61.8104
8.96112 -8.72411 39.4274
12.4948 -10.6956 61.4647
10.1943 -8.67211 39.4124
-34.3699 -13.1192 91.7873
14.1447 -9.83662 53.2282
-15.0904 -9.76298 54.1143
17.6276 -11.8879 86.6422
11.0368 -9.0884 54.0706
4.18446 -11.4925 97.5599
3.76495 -10.0455 79.9374
3.11923 -7.10505 37.2182
2.86234 -11.5578 142.601
2.95284 -7.30599 52.8188
18.7799 -9.71437 108.946
21.6794 -10.1228 128.076
1.90879 -8.2177 92.629
28.71 -9.81855 164.531
19.7536 -7.61497 91.241
146.535 -35.3072 1041.88
144.157 -9.9388 1201.24
28.2154 -3.99784 169.925
9.96468 -3.68235 57.8329
12.6844 -3.35025 78.2346
12.3567 -3.66076 63.4866
35.71 -1.98025 212.483
11.4342 -3.49295 64.9001
15.2933 -3.02108 81.7078
9.84675 -3.57753 39.6494
31.5293 -1.22951 123.806
23.791 -1.50229 105.964
13.3591 -2.7428 49.9478
12.9023 -2.10717 71.6516
15.1856 -1.6424 86.3343
43.4711 1.72883 196.393
6.43515 -2.94544 36.7275
11.2632 -2.28617 57.196
26.9858 1.67128 182.458
9.96716 -2.69966 42.7982
37.0396 1.30206 149.524
12.4741 2.40573 62.7769
9.25478 0.393871 38.0185
-5.1947 4.51709 40.5182
-49.4577 57.3402 330.383
-1.17025 5.61608 41.2272
-11.6275 32.7588 177.664
-9.13636 24.1652 131.776
-1.62323 7.15557 46.0593
-1.52448 13.0312 74.1932
-39.8065 45.9314 214.671
-30.0687 70.2376 319.538
-24.0031 10.5187 55.8214
-5.36586 13.2542 67.5081
-43.7038 27.9829 131.171
-2.13754 6.35361 36.8449
-11.1074 40.4622 184.196
-9.52578 39.5068 180.061
-58.9918 38.7649 176.383
-45.001 29.4533 136.404
-40.3091 48.5823 216.892
-36.7361 19.9935 94.4347
-11.4851 3.81216 25.0934
-63.3275 37.3193 167.418
-25.0549 12.5012 61.4981
-61.5789 35.3553 157.05
-34.7507 32.9168 147.018
-8.0403 5.8372 33.0057
-81.0831 48.5188 210.808
-23.6392 12.2656 59.6604
-8.95625 9.94858 49.6862
-3.98314 3.8506 24.449
-7.78959 13.1257 53.0154
32.5845 -25.3215 182.931
11.4899 -12.0451 65.3859
21.4703 -15.3614 100.767
10.8741 -9.0954 40.0858
18.1684 -11.065 62.257
22.5397 -12.6389 80.3311
18.6022 -12.8901 83.2241
12.144 -10.6996 60.6774
14.6077 -10.8211 61.8104
8.96112 -8.72411 39.4274
12.4948 -10.6956 61.4647
10.1943 -8.67211 39.4124
-34.3492 -13.1144 91.7303
14.1447 -9.83662 53.2282
-15.0904 -9.76298 54.1143
17.6349 -11.8915 86.6887
11.0368 -9.0884 54.0706
4.18444 -11.4924 97.5586
3.76495 -10.0455 79.9374
3.11923 -7.10505 37.2182
2.86124 -11.5368 142.154
2.95284 -7.30599 52.8188
18.7447 -9.70298 108.69
22.893 -10.4847 136.789
1.90088 -8.26961 94.0201
31.0244 -10.2939 179.894
22.6272 -8.15013 108.043
45.4992 -13.6519 304.418
80.9655 -7.46841 661.099
31.4189 -3.94774 192.292
9.96468 -3.68235 57.8329
12.6844 -3.35025 78.2346
15.1844 -3.44954 84.4677
38.7532 -1.75861 232.837
11.4344 -3.49293 64.902
15.2933 -3.02108 81.7078
9.84675 -3.57753 39.6494
31.5302 -1.22941 123.81
23.8139 -1.49917 106.088
13.3591 -2.7428 49.9478
19.7976 -0.589065 125.522
15.1849 -1.64255 86.3289
50.13 2.72912 229.856
6.43515 -2.94544 36.7275
11.2632 -2.28617 57.196
31.2402 2.7257 215.831
9.96716 -2.69966 42.7982
37.3436 1.35221 150.925
12.5128 2.4322 63.0575
9.25478 0.393871 38.0185
-5.1947 4.51709 40.5182
-63.8596 74.4711 424.681
-1.17025 5.61608 41.2272
-11.3966 32.1499 174.597
-11.303 29.5025 158.17
